# .PCD v.7 - Point Cloud Data file format
VERSION .7
FIELDS x y z rgb
SIZE 4 4 4 4
TYPE F F F U
COUNT 1 1 1 1
WIDTH 1435
HEIGHT 1
VIEWPOINT 0 0 0 1 0 0 0
POINTS 1435
DATA ascii
-9.18496 -38.9337 63.4408 65280
-9.18521 -43.0597 70.8601 65280
-9.112844 -27.12871 4.2276926 65280
-9.22788 54.3741 2.424 65280
-9.23772 -9.21338 41.9179 65280
-9.24495 60.7674 10.5156 65280
-9.25568 -37.3914 59.5845 65280
-9.26519 -43.8161 71.1423 65280
-9.27104 59.0649 8.2886 65280
-9.27933 -38.6608 51.4905 65280
-9.2864 57.5696 7.12816 65280
-8.89845 -55.610126 92.55639 65280
-9.043428 -51.506023 85.33308 65280
-9.29763 -24.5505 1.45411 65280
-9.267715 -30.297905 3.5738463 65280
-9.297005 -28.828972 0.6003091 65280
-9.32298 -55.555 93.2407 65280
-9.3353 -24.3442 5.02051 65280
-9.34078 -51.1774 81.058 65280
-9.35053 56.3763 23.2418 65280
-9.36419 -40.3494 65.2243 65280
-9.36882 55.8038 1.0385 65280
-9.41984 -30.1717 0.930881 65280
-9.42027 -50.8423 70.3342 65280
-9.43953 54.815 53.0367 65280
-9.45741 -31.4383 42.43 65280
-9.46904 60.3697 13.9269 65280
-9.4783 21.8512 48.4598 65280
-9.305021 62.33889 9.429925 65280
-9.48977 -34.3539 44.5152 65280
-9.49449 -30.6397 1.82794 65280
-9.415793 -29.977602 4.303917 65280
-9.51488 -49.6763 69.3193 65280
-9.51659 54.3639 3.59468 65280
-9.441353 -11.134341 37.67136 65280
-9.52805 -42.7422 66.7431 65280
-9.53951 -37.0566 57.7869 65280
-9.54865 -18.9949 31.8338 65280
-9.55219 -54.4439 92.5182 65280
-9.390846 54.144173 24.060461 65280
-9.129373 -56.048595 92.92867 65280
-9.57584 -48.2186 85.769 65280
-9.58175 -29.3361 0.332965 65280
-9.58925 59.6347 17.931 65280
-9.60876 56.972 25.4774 65280
-9.61559 -36.3607 46.2438 65280
-9.61998 -26.1861 6.33936 65280
-9.464501 54.78169 1.7991606 65280
-9.64363 45.5798 69.1474 65280
-9.66185 -23.9705 6.71419 65280
-9.66606 -51.52 84.9317 65280
-9.67386 57.9886 23.7795 65280
-9.6746 -51.0464 76.9308 65280
-9.67972 -51.0533 79.0968 65280
-9.68215 -38.1861 50.1537 65280
-9.68825 57.1417 21.2921 65280
-9.69605 18.7471 47.5254 65280
-9.71533 -30.8629 3.25881 65280
-9.72028 -18.2135 27.5458 65280
-9.72678 58.9232 21.988 65280
-9.661598 -25.996153 0.48192722 65280
-9.73775 8.18766 41.265 65280
-9.362419 -54.42723 89.7763 65280
-9.75067 -41.9346 67.5125 65280
-9.75604 -50.5417 82.5896 65280
-9.75905 -15.6119 28.3173 65280
-9.76116 59.2151 9.88892 65280
-9.76149 -24.5174 0.555895 65280
-9.697439 -23.023668 2.9730139 65280
-9.77725 -49.7775 83.2272 65280
-9.700607 54.789433 1.9012847 65280
-9.80725 54.7816 49.0121 65280
-9.80871 61.9546 14.5331 65280
-9.735916 55.716087 1.4544438 65280
-9.331828 -55.932587 93.101746 65280
-9.82968 56.9291 6.97064 65280
-9.83919 -37.9457 49.0089 65280
-9.7367735 62.109234 2.7291656 65280
-9.85065 53.2688 1.18188 65280
-9.85309 -44.5437 76.3168 65280
-9.85389 -13.3847 33.3169 65280
-9.87259 -32.5865 74.1768 65280
-9.87632 -23.3018 1.51581 65280
-9.88357 -30.5291 4.38258 65280
-9.88991 53.4534 41.5257 65280
-9.89007 -22.6131 5.04787 65280
-9.91063 15.8347 46.8173 65280
-9.91185 -49.6529 82.8046 65280
-9.9173 -21.891 35.6067 65280
-9.92039 -40.3675 69.2588 65280
-9.670944 56.578712 26.499275 65280
-9.93965 24.8205 48.8419 65280
-9.94077 -23.1404 36.8319 65280
-9.94136 58.188 8.05744 65280
-9.95694 -29.2324 5.32112 65280
-9.95721 -38.1739 72.5863 65280
-9.95891 -51.7631 90.5156 65280
-9.9672 52.8599 1.82586 65280
-9.959391 55.31979 6.04078 65280
-9.97257 54.0849 0.667865 65280
-9.945956 56.87794 1.4150021 65280
-9.97744 61.6271 1.61616 65280
-9.98811 -27.35 39.7126 65280
-10.0024 -30.406 0.896302 65280
-10.0035 53.7053 37.3397 65280
-10.0148 -27.0496 6.57276 65280
-10.0192 -22.6752 8.61301 65280
-10.0269 13.5746 45.3467 65280
-9.963324 54.739147 3.2760625 65280
-10.0343 34.7996 70.8694 65280
-10.0477 -36.8728 56.2188 65280
-10.0508 58.3038 16.9398 65280
-10.017814 62.958073 6.580936 65280
-10.056 58.8808 13.1715 65280
-10.0637 -22.2045 6.68086 65280
-10.0803 -37.6689 67.6678 65280
-10.086 41.6527 70.5527 65280
-10.0894 55.5753 1.0207 65280
-10.1055 54.4509 45.7468 65280
-10.1087 -30.7981 1.6808 65280
-10.1281 36.4312 35.666 65280
-10.1401 -35.8274 65.8885 65280
-10.1552 5.73439 41.2199 65280
-10.1581 -49.2169 88.0535 65280
-10.161 -24.5268 8.52219 65280
-10.1681 33.6992 39.2021 65280
-10.1815 61.3501 18.4048 65280
-9.944842 -29.337631 0.24256615 65280
-10.2031 -21.3759 8.47891 65280
-10.2096 -34.885 64.1126 65280
-10.2135 -34.9335 70.7706 65280
-10.051169 60.22226 1.0099448 65280
-10.030765 -10.32715 37.507313 65280
-10.2442 63.3145 8.36053 65280
-10.2457 53.0042 3.37205 65280
-10.251 -23.5196 0.608763 65280
-10.2579 -49.4727 82.3684 65280
-10.2588 -19.5045 23.2243 65280
-10.2701 -51.2774 73.825 65280
-10.2847 -3.60462 43.2254 65280
-10.2874 -17.0357 23.4146 65280
-10.114082 -52.493713 87.51037 65280
-10.3318 -30.9714 3.02638 65280
-10.193373 58.48406 25.062727 65280
-10.3659 58.4063 9.48975 65280
-10.3703 1.93633 69.1208 65280
-10.363798 55.107204 4.6478834 65280
-10.3827 40.8013 31.3961 65280
-10.3862 -19.9044 27.0775 65280
-10.3917 13.7577 45.6463 65280
-10.3972 -21.6274 33.7132 65280
-10.360216 56.736073 6.2307744 65280
-10.4056 -28.1533 72.1944 65280
-10.4405 45.4562 27.9714 65280
-10.4454 2.92413 41.4394 65280
-10.4537 60.5738 22.4035 65280
-10.4673 -32.3976 68.8655 65280
-9.958709 -27.364042 0.24498075 65280
-10.4832 -34.4534 62.1904 65280
-10.4859 54.9618 32.678 65280
-10.4902 57.7357 7.36322 65280
-10.5023 -21.1011 10.3644 65280
-10.5056 54.3883 5.77534 65280
-10.453099 55.757103 5.577393 65280
-10.5147 -30.7199 4.20979 65280
-10.5224 63.5527 10.6202 65280
-9.938399 58.71708 0.937084 65280
-10.521575 -54.471222 89.55453 65280
-10.5627 -18.1951 73.5494 65280
-10.5678 18.8227 47.9918 65280
-10.5688 55.0281 6.40493 65280
-10.5695 21.7691 48.8506 65280
-10.5726 -23.0059 10.766 65280
-10.5734 -51.1291 84.7441 65280
-10.5892105 30.068115 44.49425 65280
-10.5819 -0.088026 42.2087 65280
-10.5841 -36.6908 54.8852 65280
-10.591 -29.5803 5.19863 65280
-10.6029 -14.2689 28.1368 65280
-10.609964 -19.654564 14.192134 65280
-10.6131 -18.5207 17.9822 65280
-10.6144 16.0983 47.0055 65280
-10.6226 49.6546 25.4888 65280
-10.6293 -7.12674 43.8174 65280
-10.6451 -52.6704 87.2674 65280
-10.585079 -24.68363 -0.0305748 65280
-10.6624 -13.8289 73.1932 65280
-10.6716 -20.5481 17.8092 65280
-10.6755 -27.744 6.49086 65280
-10.680563 -21.59954 14.761645 65280
-10.6937 -27.8358 0.135554 65280
-10.7065 -20.6948 23.0263 65280
-10.660841 -30.446125 1.3052418 65280
-10.7482 -7.24156 70.6553 65280
-10.7582 -11.9572 33.0511 65280
-10.7789 56.4702 6.86164 65280
-10.7819 -47.3954 68.9935 65280
-10.7949 -7.99485 43.3383 65280
-10.7982 -22.7373 73.1337 65280
-10.8033 -34.2573 60.681 65280
-10.710266 -29.462803 0.6929521 65280
-10.8428 -54.27 89.6904 65280
-10.8833 52.6341 23.1143 65280
-10.8897 16.4707 68.0294 65280
-10.8921 55.7974 0.679082 65280
-10.8999 -10.3951 72.2444 65280
-10.9067 58.1363 9.00354 65280
-10.9162 -30.7111 2.72974 65280
-10.9209 -52.3485 87.1962 65280
-10.868117 -30.59829 1.1626027 65280
-10.9401 54.014 0.335267 65280
-10.9434 -25.7359 8.40485 65280
-10.9455 57.6796 7.72191 65280
-10.9477 54.0174 21.5133 65280
-10.9596 -31.2571 66.9441 65280
-10.9874 55.1156 20.0885 65280
-10.9933 -45.8997 77.4014 65280
-11.0011 56.4543 29.4107 65280
-11.0091 22.0002 68.1862 65280
-11.0125 52.9457 0.849038 65280
-11.0172 57.3851 16.1793 65280
-11.0342 63.4715 14.5819 65280
-11.0484 -50.1381 80.592 65280
-11.0516 57.8883 12.609 65280
-11.0547 -36.4775 53.3241 65280
-11.0609 -8.61942 42.6015 65280
-11.0733 -28.0244 6.14775 65280
-11.0839 -30.2423 -0.192628 65280
-11.0876 -45.3111 72.3629 65280
-11.093 -15.6112 23.1532 65280
-11.1029 -31.2349 0.281018 65280
-11.07591 -21.935175 3.4585881 65280
-11.1247 9.45855 43.6461 65280
-11.134 -29.0513 -0.192262 65280
-11.10897 -30.566458 3.788077 65280
-11.1474 28.0092 47.2481 65280
-11.1515 52.4834 1.59153 65280
-11.1537 -50.4105 75.4919 65280
-10.995068 -8.964325 37.96243 65280
-11.1731 -21.4815 4.89518 65280
-11.1868 -21.5867 31.0223 65280
-11.1995 -31.8353 1.14623 65280
-11.2325 -34.1283 59.4687 65280
-10.844957 57.36289 1.096612 65280
-11.2521 -20.9153 6.45981 65280
-11.076471 58.435886 0.8078483 65280
-11.244198 -30.887417 3.4862504 65280
-11.2914 -21.7579 17.4948 65280
-11.3008 58.4189 27.1489 65280
-11.3263 -29.8482 4.55663 65280
-11.3432 -19.971 8.36601 65280
-11.3449 52.6207 3.13504 65280
-11.35 -3.62931 68.8494 65280
-11.3544 -13.0795 27.9973 65280
-11.3642 16.5519 47.906 65280
-11.175942 -22.770105 0.8737994 65280
-11.3729 -27.5795 -0.12109 65280
-11.3742 -46.3767 70.1276 65280
-11.4008 -31.9974 2.76785 65280
-11.4039 56.4426 6.86945 65280
-11.4217 -25.9063 8.33302 65280
-11.4306 -9.65367 35.2085 65280
-11.439 14.6194 47.1187 65280
-11.4426 -24.3822 10.4554 65280
-11.452 -17.1405 17.8365 65280
-11.4597 62.692 18.5665 65280
-11.4661 25.7836 67.8785 65280
-11.4768 54.0318 5.62172 65280
-11.4866 -36.0147 51.4953 65280
-11.4966 10.9357 67.7848 65280
-11.5025 -28.2939 6.2621 65280
-11.506 -33.5285 45.9409 65280
-11.5095 60.0429 25.8651 65280
-11.511 -30.8375 65.1087 65280
-11.397117 -26.246775 -0.27039295 65280
-11.5184 -22.7301 14.5309 65280
-11.5227 18.9174 48.7243 65280
-11.5253 51.787 61.4001 65280
-11.5309 54.7799 6.28545 65280
-11.5356 -27.2335 69.5544 65280
-11.5427 7.2579 43.5847 65280
-11.5429 -19.2727 10.2949 65280
-11.18836 60.75916 0.97532415 65280
-11.5514 6.13209 67.5029 65280
-11.5598 -23.5271 12.6014 65280
-11.5675 17.0022 49.2579 65280
-11.5851 -30.7334 43.2584 65280
-11.589 25.0753 48.578 65280
-11.5914 19.0441 49.7668 65280
-11.5943 21.7527 49.0228 65280
-11.5973 -35.2454 48.4327 65280
-11.6011 -31.6781 4.09692 65280
-11.64255 -17.853447 13.712728 65280
-11.6192 53.342 57.1671 65280
-11.369178 -23.48857 0.03349537 65280
-11.6659 -30.4827 4.98779 65280
-11.649183 61.68846 23.83827 65280
-11.6792 36.8069 35.8774 65280
-11.6941 58.0293 9.04109 65280
-11.7065 21.7052 52.668 65280
-11.715 -50.7941 72.5965 65280
-11.7307 40.8088 31.3212 65280
-11.7315 -29.0057 -0.563025 65280
-11.7316 -48.6773 70.0425 65280
-11.7509 -50.1425 77.93 65280
-11.7767 55.9559 0.63641 65280
-11.7777 -30.3996 -0.59043 65280
-11.7799 48.819 65.0633 65280
-11.8048 15.1703 48.7829 65280
-11.8318 -47.4405 78.5879 65280
-11.798599 18.245043 52.240376 65280
-11.8497 -6.6636 46.976 65280
-11.854 61.7681 1.54301 65280
-11.8599 53.9494 52.7792 65280
-11.8623 -31.6011 -0.073365 65280
-11.8738 62.011 22.2399 65280
-11.8748 20.9034 55.9854 65280
-11.8794 28.966 67.8958 65280
-11.8833 19.6569 55.8925 65280
-11.887 58.069 12.5634 65280
-11.8902 -26.7581 40.1172 65280
-11.9022 -23.5317 38.037 65280
-11.9204 -8.85919 46.7787 65280
-11.9222 -21.8024 36.9384 65280
-11.9318 -15.7333 72.0464 65280
-11.9435 -22.948 71.2181 65280
-11.9455 57.099 15.9491 65280
-11.9547 21.7613 50.0813 65280
-11.9582 56.558 6.60439 65280
-11.9643 42.0024 68.9884 65280
-11.9647 53.9847 0.310883 65280
-11.818317 62.161118 2.422731 65280
-11.966 25.175 49.4929 65280
-11.9696 0.4216 67.5168 65280
-11.9849 -32.3255 0.885104 65280
-12.0025 -30.7277 63.7966 65280
-12.023 11.547 47.3983 65280
-12.0306 53.7506 49.5517 65280
-12.033 18.2307 55.8442 65280
-12.0374 33.8423 39.2187 65280
-12.0448 -11.1333 32.8183 65280
-12.0469 57.4819 1.20261 65280
-12.0606 22.9336 56.0671 65280
-12.079 -27.5125 -0.261876 65280
-12.0891 -21.7817 26.5614 65280
-12.1064 -18.97 72.0518 65280
-12.1142 -2.28458 45.9425 65280
-12.1154 -10.4859 69.1445 65280
-12.1164 51.6734 41.7317 65280
-12.1164 44.9107 67.7429 65280
-12.096525 62.87628 5.971959 65280
-12.1352 4.49568 44.0626 65280
-12.146 -28.5755 6.24698 65280
-12.1505 44.9141 27.739 65280
-12.151 52.6226 46.2296 65280
-12.1557 16.1388 51.9342 65280
-11.92682 -33.929516 57.736275 65280
-12.1815 1.62617 44.828 65280
-12.1988 -32.5477 2.61688 65280
-12.2164 16.2841 66.0584 65280
-12.2293 -49.0989 80.1258 65280
-12.2371 -26.7807 67.8295 65280
-12.2393 63.1619 7.89918 65280
-12.2439 -9.4571 46.11 65280
-12.2532 52.8335 0.738578 65280
-12.2566 51.8099 37.4728 65280
-12.263 -12.9696 70.836 65280
-12.3429 20.4328 58.8456 65280
-12.3559 57.8898 8.9477 65280
-12.2754345 57.37632 7.154471 65280
-12.3574 -30.7973 5.03239 65280
-12.375 -32.1516 4.05453 65280
-12.3754 16.6421 55.5984 65280
-12.3766 49.3391 25.411 65280
-12.32855 58.744865 0.750152 65280
-12.3806 -14.3065 22.871 65280
-12.3827 23.8254 53.351 65280
-12.3856 -49.8102 71.2369 65280
-12.391 63.3377 10.2005 65280
-12.3988 53.4417 32.6926 65280
-12.4011 -28.9721 -0.526581 65280
-12.4019 52.41 1.41889 65280
-12.4051 18.0483 58.9629 65280
-12.4236 22.789 58.5572 65280
-12.4238 -21.9598 22.8412 65280
-12.4483 54.6894 5.8958 65280
-12.359675 -25.865982 -0.3705575 65280
-12.4551 53.9208 5.26888 65280
-12.4563 -30.6763 62.7505 65280
-12.4571 -26.3608 7.91566 65280
-12.459 11.4654 65.6985 65280
-12.391099 56.30212 0.9840384 65280
-12.4812 52.5351 2.79976 65280
-12.4865 -12.9908 27.7927 65280
-12.5073 52.339 22.829 65280
-12.5126 -7.49881 67.7978 65280
-12.5224 53.7775 21.2845 65280
-12.5231 8.72094 47.0567 65280
-12.5253 60.3792 0.873178 65280
-12.5275 54.9623 19.7401 65280
-12.519782 56.332203 5.7977204 65280
-12.5695 57.0064 15.8827 65280
-12.576 35.3139 67.8853 65280
-12.5768 3.64175 65.7929 65280
-12.5946 -30.4305 -0.543313 65280
-12.6007 56.0259 29.3432 65280
-12.6019 16.0703 59.0849 65280
-12.669 -33.5773 55.6445 65280
-12.6729 58.1851 12.527 65280
-12.676 12.9542 63.5274 65280
-12.7033 -22.7222 69.7185 65280
-12.7113 -19.0997 8.19718 65280
-12.7116 51.4819 32.5716 65280
-12.7116 -28.6168 5.96268 65280
-12.7241 14.9425 61.009 65280
-12.7255 -26.5386 66.5856 65280
-12.7314 -4.33913 67.6863 65280
-12.7526 16.4692 63.8519 65280
-12.7555 49.7053 37.2717 65280
-12.7577 -16.0872 17.535 65280
-12.7682 -31.6535 -0.07698 65280
-12.7709 56.0044 0.399885 65280
-12.7777 -18.8727 70.8689 65280
-12.7787 -1.07095 66.3245 65280
-12.791 -18.1841 10.0021 65280
-12.7987 17.1776 61.1748 65280
-12.8026 -20.2021 6.2879 65280
-12.716989 55.06656 4.949076 65280
-12.8145 58.1909 27.1579 65280
-12.672178 55.213554 1.0784891 65280
-12.805698 -21.508614 2.9206355 65280
-12.8359 -20.8682 4.7656 65280
-12.837 30.471 44.085 65280
-12.8572 -22.7663 17.0547 65280
-12.8655 -27.385 -0.2753 65280
-12.852057 53.96433 1.4971635 65280
-12.8757 8.88504 64.9241 65280
-12.8926 57.8486 9.00817 65280
-12.903 63.0546 14.1198 65280
-12.9062 53.9335 2.78488 65280
-12.9068 -17.0635 12.1634 65280
-12.9186 13.0223 51.3617 65280
-12.9246 -32.3705 0.786159 65280
-12.9335 48.2291 37.2997 65280
-12.9483 -9.41579 50.2557 65280
-12.9778 -16.4599 14.2384 65280
-12.9903 -47.5398 71.1798 65280
-12.995 54.1739 28.9521 65280
-12.9991 -6.71862 50.3934 65280
-13.0181 -1.65252 48.7682 65280
-13.0237 57.476 7.51416 65280
-13.031331 -22.099453 0.76982087 65280
-13.0412 -21.0431 34.8302 65280
-13.0421 -30.849 4.69566 65280
-13.0569 50.0304 32.5438 65280
-13.0645 -46.7831 73.557 65280
-13.0686 -33.2632 54.3812 65280
-13.0713 -9.60603 40.8695 65280
-13.074 28.3866 47.7134 65280
-13.0813 -26.3762 65.4893 65280
-13.086764 59.590096 0.84673387 65280
-13.0945 20.4957 60.7791 65280
-12.957007 54.947876 4.7271433 65280
-13.1023 49.659 41.8741 65280
-12.707973 58.113415 0.8592282 65280
-13.1089 -8.65639 37.5703 65280
-13.1222 56.1924 6.51759 65280
-13.1301 5.86972 47.2881 65280
-13.1323 -32.6281 2.39841 65280
-13.1335 -49.8343 73.9828 65280
-13.098628 53.990387 1.4630066 65280
-13.1379 25.9324 50.2188 65280
-13.1425 53.9042 2.7488 65280
-13.1477 -23.5413 14.1093 65280
-13.1652 -17.3056 69.5549 65280
-13.1684 -25.0025 10.1306 65280
-13.1705 1.49376 64.4086 65280
-13.1712 -24.4036 12.3195 65280
-13.1756 62.4089 18.2731 65280
-13.1842 61.4633 23.3045 65280
-13.1959 2.66688 47.7863 65280
-13.1998 60.2907 25.1423 65280
-13.2076 60.9534 24.1977 65280
-13.2131 -32.2312 3.73608 65280
-13.2181 49.6227 60.9695 65280
-13.2195 54.6046 5.79362 65280
-13.2273 42.1287 31.7126 65280
-13.2276 -20.7474 31.607 65280
-13.2295 61.9675 21.9124 65280
-13.235 -8.91183 36.4012 65280
-13.2364 10.4571 62.9497 65280
-13.24 -10.2629 49.8354 65280
-12.9371 -30.541845 61.639496 65280
-12.940999 -25.696491 -0.5062048 65280
-13.2705 47.0199 63.5371 65280
-13.2712 54.4578 0.431096 65280
-13.2795 42.779 66.2874 65280
-13.3093 37.8547 36.6857 65280
-13.3111 -28.6201 5.70159 65280
-13.3144 -49.2969 76.4626 65280
-13.3178 46.9038 37.389 65280
-13.3409 -26.4422 7.64476 65280
-13.3493 6.65049 63.6927 65280
-13.331309 -29.92004 -0.03413403 65280
-13.3705 -6.10088 66.608 65280
-13.3756 -24.4469 41.4996 65280
-13.399 9.84601 50.8287 65280
-13.4136 58.5513 12.6136 65280
-13.4175 -9.40584 35.0371 65280
-13.208838 -22.627752 -0.05022601 65280
-13.4299 -27.9701 44.5853 65280
-13.4375 57.4858 15.9917 65280
-13.4422 53.9693 5.10624 65280
-13.4444 60.862 1.36842 65280
-13.4558 -1.41992 50.6659 65280
-13.4595 51.4098 56.535 65280
-13.448174 -21.595516 67.1498 65280
-13.4645 -22.0386 39.7045 65280
-13.4656 50.3866 46.4803 65280
-13.4892 -29.5464 46.6813 65280
-13.4917 -3.25648 64.91 65280
-13.485983 12.126826 59.542316 65280
-13.5 -32.7328 52.1742 65280
-13.5078 48.8312 32.5392 65280
-13.5117 56.4682 0.359163 65280
-13.5221 47.6597 41.9797 65280
-13.5346 53.2498 0.854647 65280
-13.5646 -31.2758 49.2048 65280
-13.5743 49.8311 25.2182 65280
-13.5755 -12.6821 66.4527 65280
-13.5833 -10.9193 32.7977 65280
-13.5849 -6.99276 53.358 65280
-13.5892 51.6151 52.9264 65280
-13.5963 22.8271 60.6937 65280
-13.608 52.6794 22.9275 65280
-13.6197 51.2654 50.4029 65280
-13.6224 55.1142 20.0261 65280
-13.6233 53.923 21.5342 65280
-13.6277 13.2052 55.277 65280
-13.6307 46.194 27.8916 65280
-13.6355 21.5723 64.6359 65280
-13.6404 -30.1059 59.3253 65280
-13.532481 52.967564 28.646372 65280
-13.541384 -29.694317 -0.05838986 65280
-13.666 49.4881 46.2133 65280
-13.6709 3.8951 62.3821 65280
-13.513257 -24.40619 -0.3842348 65280
-13.6932 -28.6253 5.90475 65280
-13.6965 -15.4351 67.9777 65280
-13.6984 -1.14654 62.9848 65280
-13.7162 52.7901 1.38524 65280
-13.7216 58.2463 9.07303 65280
-13.5213175 56.064663 26.337656 65280
-13.767422 -31.620977 3.1969614 65280
-13.754 3.1114 50.5324 65280
-13.7572 -9.93421 53.0249 65280
-13.7613 -28.25 -0.753366 65280
-13.7743 6.84142 50.6243 65280
-13.779 -21.3294 22.7404 65280
-13.7852 -10.3889 44.4286 65280
-13.7885 -7.19816 55.2611 65280
-13.7938 7.99503 62.125 65280
-13.7988 -21.1446 26.4842 65280
-13.562675 -26.319344 64.00395 65280
-13.8126 56.3256 6.66657 65280
-13.824 52.7124 2.73124 65280
-13.8296 -48.7329 72.2632 65280
-13.8693 -13.0328 27.5901 65280
-13.8743 -21.4808 65.8997 65280
-13.681434 -31.015965 0.4642228 65280
-13.8882 -9.78451 55.0806 65280
-13.9155 23.5954 64.0699 65280
-13.5135355 57.56901 7.706529 65280
-13.9479 -7.36916 57.7885 65280
-13.9506 -9.33834 65.0904 65280
-13.9706 -1.29308 54.1137 65280
-13.9832 0.77151 60.9156 65280
-13.95367 -31.612751 3.2191908 65280
-13.9898 -1.45597 56.189 65280
-13.9993 4.99043 60.9583 65280
-13.838458 -31.574842 0.9949044 65280
-14.0245 -4.3623 61.5211 65280
-13.851845 -31.805195 2.0977852 65280
-14.0506 -6.31546 63.3701 65280
-14.096305 -23.21688 -0.18445514 65280
-14.0554 62.5052 13.8816 65280
-14.0679 -14.7429 22.6385 65280
-14.0705 57.8089 24.2494 65280
-14.074 9.4961 59.2616 65280
-13.896692 -25.721611 -0.50899994 65280
-14.0776 -48.1413 74.6338 65280
-14.0808 1.60934 59.8868 65280
-14.0815 -9.68129 56.8069 65280
-14.0825 -2.52569 59.2333 65280
-14.083 62.6208 10.0867 65280
-13.984413 -18.259962 9.605132 65280
-14.1003 -29.7191 57.6969 65280
-13.803024 21.213015 62.864708 65280
-14.1053 -22.1529 0.422968 65280
-14.1086 59.2821 12.8191 65280
-14.1147 61.266 1.97826 65280
-14.12 10.2418 54.9323 65280
-14.122 -17.1264 11.8359 65280
-14.1276 54.7477 6.01576 65280
-14.1406 -16.3264 17.1245 65280
-14.1622 35.0291 40.5864 65280
-14.1695 -15.9401 66.5673 65280
-14.1854 54.8262 0.289913 65280
-14.1874 -16.624 13.8597 65280
-14.222 25.8992 58.3726 65280
-14.2247 56.8549 0.734921 65280
-14.2385 -11.3627 52.5583 65280
-14.2388 2.68492 57.2692 65280
-14.2388 -8.20667 60.07 65280
-14.2398 -21.5511 64.5157 65280
-14.2624 7.10086 54.5853 65280
-14.2663 43.3055 62.8039 65280
-14.2673 3.31232 54.3231 65280
-14.2693 46.8641 28.115 65280
-14.2773 43.3299 32.1308 65280
-14.2844 59.0227 22.7985 65280
-14.295573 46.133984 60.815163 65280
-14.285895 62.222942 6.251019 65280
-14.3037 61.5123 17.8842 65280
-14.3051 -27.6631 -0.89383 65280
-14.311579 61.62079 3.0903926 65280
-14.3166 -15.9242 64.9095 65280
-14.319 6.49127 58.3407 65280
-14.3206 -30.0545 -0.507343 65280
-14.3249 26.0011 63.6235 65280
-14.246076 58.4161 1.4175301 65280
-14.3607 60.0722 21.5035 65280
-14.3636 50.2837 25.285 65280
-14.3688 43.8971 42.3016 65280
-14.3702 -22.5105 16.8525 65280
-14.3783 -25.627 45.0031 65280
-14.3807 36.8903 64.5447 65280
-14.3966 54.0981 5.25133 65280
-14.3988 51.2015 28.7456 65280
-14.4031 -12.4544 63.4513 65280
-14.4036 -20.3466 6.25915 65280
-14.4185 52.8652 23.2026 65280
-14.42 59.0546 9.10961 65280
-14.4261 56.6606 6.44931 65280
-14.4338 -21.2183 40.4448 65280
-14.4408 -22.3125 42.1497 65280
-14.4556 26.1733 56.2639 65280
-14.4609 -20.6041 38.6172 65280
-14.4752 -28.2232 5.96064 65280
-14.4775 54.2429 26.1728 65280
-14.4792 54.3405 21.7603 65280
-14.4819 26.4349 54.0198 65280
-14.4912 62.0814 13.7801 65280
-14.5012 46.9455 32.5348 65280
-14.5019 -10.6066 59.1698 65280
-14.5038 58.3409 16.2641 65280
-14.5107 53.6953 0.699564 65280
-14.5107 27.8295 51.0484 65280
-14.5227 -27.1237 47.2231 65280
-14.5368 25.9 61.0712 65280
-14.5482 55.9288 20.0419 65280
-14.5677 58.3185 7.19132 65280
-14.5684 -21.0454 4.73828 65280
-14.5804 -19.3093 32.0991 65280
-14.557023 -21.942558 1.0652844 65280
-14.60502 -21.51478 3.219293 65280
-14.6153 29.6631 48.4973 65280
-14.6307 -28.9061 55.1915 65280
-14.6448 44.3811 60.7439 65280
-14.674712 -26.009787 60.09179 65280
-14.665245 48.325035 56.663445 65280
-14.6597595 -32.075947 3.844051 65280
-14.6752 -11.2477 40.8271 65280
-14.6775 61.0702 17.6889 65280
-14.6843 44.0277 37.4419 65280
-14.7001 -10.8331 38.2627 65280
-14.7048 30.2332 63.4506 65280
-14.7084 59.6277 13.0791 65280
-14.7135 -25.7732 7.41694 65280
-14.7158 -11.8209 55.4611 65280
-14.7329 -28.3937 50.9935 65280
-14.7343 53.0115 1.24577 65280
-14.735 32.0881 44.8061 65280
-14.7457 -31.5637 0.109878 65280
-14.662053 -11.561632 61.012047 65280
-14.7724 -11.9861 43.8899 65280
-14.8064 -27.0523 -0.607309 65280
-14.8094 52.9145 2.6832 65280
-14.8289 59.2765 1.58226 65280
-14.8298 -24.0668 45.0535 65280
-14.8306 45.7639 46.4527 65280
-14.8337 -23.2991 13.8596 65280
-14.8353 -19.5871 26.846 65280
-14.8525 58.8803 16.6187 65280
-14.8594 -23.8916 12.053 65280
-14.866 58.6998 7.68168 65280
-14.762431 57.267036 1.1776104 65280
-14.8876 -32.5823 2.58592 65280
-14.844765 57.43357 23.255869 65280
-14.8957 -12.7881 32.7616 65280
-14.8964 38.6104 62.3555 65280
-14.9028 42.5306 42.3821 65280
-14.905 -24.2436 9.94023 65280
-14.9062 -12.5043 58.1626 65280
-14.9353 -32.3857 1.0046 65280
-14.9428 48.4903 28.4332 65280
-14.9435 40.3931 37.4631 65280
-14.9486 59.2029 21.2762 65280
-14.9626 -10.7756 37.0145 65280
-14.9667 48.8175 53.1366 65280
-14.9679 61.2877 13.5855 65280
-14.9693 55.1252 5.88921 65280
-14.9718 40.6003 60.3845 65280
-14.922053 57.443283 5.969165 65280
-14.9838 -29.5399 -0.649581 65280
-14.9876 44.8768 32.3768 65280
-15.013 48.2355 50.9038 65280
-15.0176 28.906 61.2519 65280
-15.0237 60.387 17.3729 65280
-14.888662 -22.256561 61.902912 65280
-15.0347 55.2383 0.566916 65280
-15.037 -19.8847 22.5031 65280
-15.0398 -14.469 27.2914 65280
-15.0453 -19.213 9.78471 65280
-14.984809 45.26435 57.626022 65280
-15.0825 -26.1333 57.7655 65280
-15.0869 28.4751 58.9778 65280
-15.0883 51.7353 25.7207 65280
-15.0922 60.1804 13.3049 65280
-15.1141 -17.5465 16.8901 65280
-15.122271 -18.111107 13.021553 65280
-15.1358 -12.1288 49.0591 65280
-15.1539 59.5287 9.65922 65280
-15.1554 -15.9209 22.3201 65280
-14.677646 -25.134853 -0.10595471 65280
-15.03437 -24.264183 -0.0547616 65280
-15.1798 56.6801 5.35276 65280
-15.167363 42.38546 56.82546 65280
-15.1859 57.2417 0.898781 65280
-15.1914 -11.407 35.7491 65280
-15.080909 -18.501646 61.90419 65280
-15.022469 -15.228505 61.27907 65280
-15.2285 42.1968 37.6881 65280
-15.2371 54.559 5.15745 65280
-15.2559 54.2088 23.7059 65280
-15.2559 42.3562 46.3913 65280
-15.2571 31.8506 61.6557 65280
-15.279 43.1224 53.8552 65280
-15.22428 -14.319411 58.39552 65280
-15.2963 40.8983 53.9847 65280
-15.2973 43.0473 50.9694 65280
-15.2989 -21.3515 16.7815 65280
-15.3071 -20.2172 8.04406 65280
-15.3083 37.9805 60.3553 65280
-15.3201 -18.9781 36.7781 65280
-15.3358 45.7634 53.5414 65280
-15.3479 -27.146 5.54132 65280
-15.351 -26.2916 55.7782 65280
-15.3672 -17.7021 32.4426 65280
-15.3711 -22.9767 0.350008 65280
-15.364404 40.27638 56.661804 65280
-15.153146 61.647778 9.838368 65280
-15.3882 -15.3352 32.7603 65280
-15.3885 54.3163 0.918288 65280
-15.3958 45.4106 51.0011 65280
-15.4175 -24.8594 47.7601 65280
-15.4253 28.709 56.754 65280
-15.4328 -14.0002 54.994 65280
-15.4339 41.1243 50.8977 65280
-15.4478 30.0287 59.4501 65280
-15.4573 38.3853 41.7232 65280
-15.467 -19.1595 38.9864 65280
-15.4759 -18.1116 27.2842 65280
-15.4768 55.8735 4.25524 65280
-15.488 59.0868 7.95624 65280
-15.4921 -13.2229 52.1613 65280
-15.4963 55.7772 22.3243 65280
-15.5075 -16.3588 27.3645 65280
-15.465055 -31.679361 3.9745317 65280
-15.51 -31.0694 -0.006525 65280
-15.5184 -25.864 51.6773 65280
-15.5202 -28.8659 -0.363473 65280
-15.5269 -13.8158 39.5781 65280
-15.5333 60.9705 10.1449 65280
-15.5358 -23.0349 59.1365 65280
-15.5516 29.1138 54.6353 65280
-15.5602 60.1022 9.98109 65280
-15.022287 -27.822567 5.671963 65280
-15.5784 59.6603 2.18674 65280
-15.5831 -19.5089 16.868 65280
-15.5863 -13.9215 41.7972 65280
-15.347806 56.120903 1.4517354 65280
-15.5892 -17.6201 57.861 65280
-15.5897 -20.4487 59.0105 65280
-15.6006 53.5729 1.31136 65280
-15.6043 33.8843 45.3262 65280
-15.605635 56.08447 4.483624 65280
-15.6362 53.5022 2.5547 65280
-15.6387 37.9408 58.0042 65280
-15.6445 -13.9678 38.15 65280
-15.6518 30.2518 51.9979 65280
-15.6603 -14.6192 44.4047 65280
-15.6686 -24.5697 7.53374 65280
-15.6704 57.3924 20.8317 65280
-15.590025 -19.254639 40.859592 65280
-15.565172 39.92426 43.04012 65280
-15.7006 -17.8461 22.6586 65280
-15.7078 -22.8101 10.0685 65280
-15.710062 -22.349432 13.37065 65280
-15.733875 57.91699 6.8855977 65280
-15.626126 60.84492 6.155874 65280
-15.7501 -18.0478 44.7342 65280
-15.7552 -17.2909 37.0656 65280
-15.7579 -23.8085 55.9364 65280
-15.7711 38.761 45.7953 65280
-15.7813 -21.1146 9.95067 65280
-15.7839 -32.2274 2.64982 65280
-15.635161 55.487522 2.9853966 65280
-15.797 -17.4773 42.4211 65280
-15.8003 -31.9932 0.971733 65280
-15.8022 -14.4791 36.843 65280
-15.8077 -20.9694 45.1852 65280
-15.8082 -17.0559 38.9171 65280
-15.8184 56.6123 5.96748 65280
-15.8232 -16.7969 55.1293 65280
-15.827 -17.0422 40.4299 65280
-15.8279 -26.2797 5.91469 65280
-15.8281 32.8833 59.77 65280
-15.8294 39.2926 53.7009 65280
-15.8294 38.2314 56.0532 65280
-15.8303 -20.3357 13.6096 65280
-15.8357 -20.7103 11.7002 65280
-15.843331 -19.303986 55.513153 65280
-15.8557 59.8886 2.89876 65280
-15.8562 31.824 49.2127 65280
-15.8584 57.4043 0.995586 65280
-15.8754 -14.0672 48.7293 65280
-15.6968565 55.569252 1.9911941 65280
-15.905 55.9162 5.28156 65280
-15.9493 -25.325 -0.115857 65280
-16.00295 59.976933 3.8286405 65280
-15.9562 31.2693 57.1775 65280
-15.9569 -23.4285 51.9114 65280
-15.972 -15.6794 52.0215 65280
-15.775402 -27.071573 0.35248303 65280
-15.9815 59.5913 8.09669 65280
-16.0169 36.9283 50.7116 65280
-15.872002 -21.869673 5.296518 65280
-16.0465 -22.1125 47.951 65280
-16.0508 34.46 50.2047 65280
-16.052 58.1532 6.85165 65280
-16.053 34.1503 57.5006 65280
-16.0548 -30.2719 0.215593 65280
-16.0832 32.3325 55.3366 65280
-16.1051 -21.8548 7.95648 65280
-16.1428 -30.9073 3.72716 65280
-15.996397 -22.689936 1.202607 65280
-16.1697 -23.1846 7.8877 65280
-16.1732 35.004 55.6299 65280
-15.838496 56.376827 0.99352896 65280
-16.1822 -16.5531 48.2647 65280
-16.184067 -22.462704 3.2328215 65280
-16.2022 33.4134 52.854 65280
-16.2214 -20.9449 51.7292 65280
-16.2273 35.9918 53.2325 65280
-16.2345 -19.1776 48.0981 65280
-16.230284 -29.19538 3.1442454 65280
-16.2526 -25.7971 6.25226 65280
-16.2532 -18.0589 51.8025 65280
-16.2734 56.7357 6.24644 65280
-16.2753 55.0766 3.19161 65280
-16.308008 59.781246 6.646707 65280
-16.14926 -28.250286 0.69619906 65280
-16.3482 -29.4552 2.13922 65280
-16.3753 57.5343 1.39329 65280
-16.3798 -31.157 1.08734 65280
-16.405 -31.4028 2.58742 65280
-16.4241 58.9008 6.67584 65280
-16.410471 -28.967127 3.1387992 65280
-16.4413 -24.8577 -0.09382 65280
-16.326702 -28.731087 1.1516142 65280
-16.4772 55.1083 2.10969 65280
-16.5271 -29.0426 2.12361 65280
-16.5355 -25.1337 6.30254 65280
-16.5363 -27.9811 4.72731 65280
-16.5836 56.1473 5.56807 65280
-16.6009 -26.6924 0.146516 65280
-16.7429 -24.1385 6.19566 65280
-16.538433 56.336506 1.2685077 65280
-16.914896 58.424046 3.8960822 65280
-16.9783 -27.7498 0.592331 65280
-17.0164 55.2656 3.57054 65280
-16.618195 -23.023897 5.8442044 65280
-17.0727 -27.4443 5.11007 65280
-17.1123 -26.2608 0.169979 65280
-17.1388 55.327 2.37962 65280
-17.002295 -24.284916 0.58782864 65280
-16.975351 57.947838 5.7836504 65280
-17.136986 56.71608 5.795593 65280
-17.1895 -28.9617 3.61266 65280
-17.2157 -28.4891 1.25599 65280
-17.185463 56.870396 2.1104026 65280
-17.061554 56.469906 1.8421886 65280
-17.3604 -29.0312 2.4646 65280
-17.3859 -24.0486 1.75379 65280
-17.4317 -26.6512 5.15099 65280
-17.449057 -24.059679 2.9206705 65280
-17.4364 -25.3199 4.86255 65280
-17.4665 56.7494 3.89679 65280
-17.387331 57.00485 2.7009408 65280
-17.5999 55.7916 2.77318 65280
-17.6243 55.7572 3.87095 65280
-17.583239 -25.739958 0.81091875 65280
-17.535545 -27.107445 0.6272382 65280
-17.7907 -28.3411 3.93017 65280
-17.8003 -27.8941 1.37962 65280
-17.9201 -25.7763 1.77849 65280
-17.99 -28.3829 2.69095 65280
-18.033333 -25.989424 3.1337 65280
-18.0263 -27.0954 1.66535 65280
-18.071 -27.4193 4.03048 65280
83.97702 -90.909805 23.760706 65280
84.059875 -83.78567 71.01857 65280
81.7003 -90.78666 50.36978 65280
78.02113 -100.04053 -1.105217 65280
85.69736 -85.082016 22.717705 65280
77.93408 -82.226 68.6803 65280
85.78253 -89.51433 64.941795 65280
87.01586 -94.63872 0.459967 65280
77.35445 -85.61895 20.32853 65280
80.61504 -80.524994 21.180708 65280
81.64679 -93.821686 66.17734 65280
77.521194 -86.32795 80.55126 65280
77.08484 -86.85101 51.681618 65280
83.60767 -88.09947 50.77321 65280
81.55501 -85.46907 15.273396 65280
77.73216 -93.74369 67.43097 65280
77.03157 -91.18275 58.331234 65280
118.800095 -88.905655 4.776196 65280
85.42926 -89.55441 11.578447 65280
81.329994 -82.10277 43.903515 65280
77.30349 -88.47898 22.79211 65280
77.72656 -85.494804 73.25407 65280
76.924065 -87.479164 25.58428 65280
76.812096 -89.02638 12.062642 65280
80.915886 -78.974434 67.85374 65280
76.67589 -85.377014 23.196564 65280
83.50232 -93.83009 12.383373 65280
76.82027 -94.521385 10.924062 65280
81.462326 -84.03788 5.27785 65280
77.0887 -84.059204 3.571117 65280
80.8168 -84.571 17.0675 65280
83.9002 -83.60037 69.84657 65280
83.35592 -91.529366 21.249176 65280
81.55513 -83.22216 6.363744 65280
114.34048 -92.580284 16.416403 65280
80.79686 -91.95684 22.459736 65280
84.23817 -87.39066 57.10751 65280
81.03607 -80.86275 59.376034 65280
81.25999 -81.910965 53.03921 65280
115.43349 -84.23905 15.669475 65280
77.22713 -96.683495 5.270183 65280
78.234726 -99.420235 -1.571866 65280
121.60913 -89.92886 0.163006 65280
80.884995 -79.32732 71.11174 65280
85.421616 -87.863815 21.671234 65280
75.81149 -86.604256 7.928186 65280
120.76454 -86.07996 18.453766 65280
76.80496 -84.63986 56.50832 65280
77.12294 -83.42225 61.24788 65280
76.2723 -94.894 8.305826 65280
118.151375 -87.537895 7.076952 65280
83.05068 -83.437996 30.59097 65280
80.859924 -80.57088 33.23805 65280
121.99916 -90.42979 -0.214562 65280
76.96338 -88.55008 53.234413 65280
84.017075 -87.03667 14.625641 65280
84.55944 -84.06896 19.248417 65280
115.22586 -85.55842 18.701958 65280
112.763435 -85.17467 12.217826 65280
78.877304 -85.852646 85.06642 65280
114.91056 -89.20607 18.558971 65280
113.6854 -87.71377 17.108126 65280
121.51162 -91.17866 19.055782 65280
83.82007 -95.99028 7.91525 65280
101.044815 -42.63736 144.97691 65280
84.879616 -85.91206 3.068703 65280
81.03718 -91.93249 28.352343 65280
83.12286 -82.140755 66.62594 65280
76.64041 -83.46768 66.73028 65280
79.86369 -93.35071 1.399842 65280
80.48081 -94.84396 14.400987 65280
86.298065 -85.01869 7.182643 65280
80.81476 -90.63618 33.767883 65280
112.49875 -89.93664 8.733351 65280
83.12275 -90.413734 54.025707 65280
75.72699 -89.63596 57.186596 65280
77.72378 -92.11249 14.21698 65280
75.77243 -90.36346 61.837513 65280
85.258705 -90.92341 63.637173 65280
124.15529 -88.9594 16.474894 65280
74.46696 -89.72393 1.890324 65280
75.87288 -92.01134 68.64204 65280
125.16452 -89.04283 2.823717 65280
85.28436 -83.09099 9.207515 65280
81.08426 -81.4493 17.243082 65280
114.4967 -89.869354 1.098743 65280
80.91342 -82.74348 77.4687 65280
80.73266 -80.12292 18.01133 65280
86.19905 -98.26156 -0.537457 65280
85.05667 -89.98588 67.14794 65280
76.087036 -87.031654 71.04564 65280
77.36975 -88.303505 89.85859 65280
76.1026 -85.465034 8.70209 65280
83.775055 -82.52049 21.75083 65280
82.94116 -89.79359 48.553165 65280
126.45413 -88.82777 3.472475 65280
118.52062 -84.82637 14.888948 65280
112.35571 -88.06761 11.376662 65280
82.06067 -84.73018 3.809387 65280
100.38953 -41.86583 145.57991 65280
121.85726 -84.4766 15.64859 65280
112.48188 -88.670815 3.313178 65280
125.90468 -88.86823 11.877674 65280
115.789734 -87.486275 19.471647 65280
76.859245 -85.283554 2.101767 65280
76.03956 -94.2942 8.058996 65280
123.48289 -84.06202 14.496155 65280
114.04701 -84.171364 14.963877 65280
75.28894 -87.81026 58.36014 65280
75.58906 -85.47909 59.763535 65280
115.237915 -89.666916 1.493409 65280
75.40431 -89.68193 73.28365 65280
116.6306 -85.27712 18.282043 65280
75.193825 -88.45079 69.33784 65280
87.57249 -87.98978 1.81677 65280
74.99849 -85.40502 64.88475 65280
74.731964 -87.04332 2.600957 65280
83.16558 -82.855835 9.342204 65280
87.73067 -89.37234 4.313244 65280
75.10541 -98.52873 -0.887232 65280
112.038826 -86.40174 8.304178 65280
76.01957 -87.76271 78.95938 65280
74.84178 -89.71912 8.802948 65280
75.94284 -88.0482 75.626305 65280
74.65006 -88.65799 65.04445 65280
83.245155 -85.27766 52.749763 65280
82.955505 -89.87155 33.230648 65280
75.13049 -92.82785 8.533229 65280
83.083725 -92.249176 59.208015 65280
83.56571 -99.431435 -1.604859 65280
113.855354 -87.7922 16.390581 65280
82.08023 -100.36719 -1.177598 65280
80.373665 -93.4842 62.726032 65280
84.91255 -90.64311 71.13686 65280
82.65117 -85.61935 76.2558 65280
80.196365 -81.44553 47.013752 65280
113.51726 -86.14535 10.911781 65280
125.38399 -85.14606 12.157715 65280
75.35608 -90.718994 69.394325 65280
113.39251 -85.01787 11.285524 65280
74.93496 -90.433044 8.140527 65280
83.2569 -85.2439 44.163498 65280
86.62502 -88.74467 2.425442 65280
74.89235 -96.753716 -0.345007 65280
79.61549 -93.89037 65.90069 65280
113.00456 -91.53788 14.213702 65280
85.06529 -88.691826 69.33322 65280
82.80223 -84.87634 12.565929 65280
99.44193 -42.62845 144.07188 65280
79.976 -81.31796 54.346817 65280
83.16684 -91.21039 29.044228 65280
79.542786 -79.32416 70.44483 65280
82.99056 -80.59904 70.681854 65280
115.999466 -86.52378 10.402184 65280
79.8655 -80.43919 35.0051 65280
84.80294 -98.30914 -0.613134 65280
79.77339 -82.6679 17.696613 65280
85.36497 -88.6524 59.14112 65280
84.330315 -92.42511 68.66152 65280
79.64712 -82.0352 75.21133 65280
120.219574 -87.31446 7.656942 65280
99.02189 -42.13591 144.56494 65280
79.429855 -91.42016 22.718405 65280
79.80501 -83.1541 9.455931 65280
82.35399 -86.797966 84.51471 65280
82.51143 -83.60526 75.7837 65280
74.011925 -95.41923 -0.451831 65280
86.512405 -88.248695 9.734829 65280
73.76342 -91.073395 4.364687 65280
79.69932 -90.31663 36.29921 65280
78.645485 -90.82755 27.228706 65280
82.15432 -79.54844 70.700455 65280
100.29498 -42.798935 143.96532 65280
81.02654 -95.59613 0.539188 65280
114.12882 -93.60773 10.262527 65280
73.825096 -91.33318 0.643148 65280
79.866035 -91.97364 1.31343 65280
73.45853 -95.76518 0.180788 65280
80.46829 -96.73756 8.319235 65280
118.25322 -95.37248 7.994611 65280
79.900085 -84.94745 12.285513 65280
79.69969 -80.85541 18.73075 65280
99.36996 -42.382248 145.7368 65280
79.059044 -82.75206 35.81352 65280
73.183716 -91.386505 1.228189 65280
84.46312 -89.20496 15.549531 65280
83.13487 -96.0049 10.824476 65280
79.451645 -81.93125 45.42593 65280
78.96538 -82.80116 27.920452 65280
115.542656 -84.87161 13.808926 65280
116.46529 -89.59204 -0.007637 65280
73.58574 -92.47517 81.97149 65280
79.58313 -80.756775 26.632257 65280
117.261215 -90.71894 19.850317 65280
118.68592 -85.79658 17.362574 65280
81.90472 -91.24166 53.785027 65280
79.144554 -94.45967 14.514779 65280
-18.2314 -27.4595 2.90733 65280
114.963295 -83.77322 13.78618 65280
82.11643 -91.83525 22.334942 65280
85.59425 -94.869545 8.490341 65280
73.77867 -93.81337 73.55438 65280
81.91111 -94.67118 13.975887 65280
118.73304 -85.51218 16.165522 65280
79.49493 -86.3546 15.671376 65280
82.2717 -82.48507 59.05374 65280
82.60585 -84.75148 17.33253 65280
123.33161 -83.88238 13.373729 65280
123.54251 -89.93276 17.519606 65280
119.44218 -91.03819 19.890738 65280
113.063705 -88.22299 5.061348 65280
84.45013 -91.89333 12.485336 65280
113.250496 -90.996185 13.243139 65280
80.65283 -97.3248 6.383934 65280
86.07647 -84.26839 3.251112 65280
79.740364 -91.15035 53.581722 65280
79.25517 -85.51419 17.81218 65280
86.766495 -87.75772 1.767979 65280
73.45215 -91.98286 77.30763 65280
78.89861 -83.49143 44.40067 65280
79.172775 -89.821495 32.3888 65280
83.97527 -90.939804 19.890392 65280
79.90221 -80.056404 63.53496 65280
79.63754 -82.531906 6.868373 65280
81.89711 -80.91585 18.795052 65280
116.31708 -95.869644 8.815646 65280
82.27725 -93.24937 1.439956 65280
121.968216 -87.972855 19.308584 65280
87.586624 -96.31871 -0.248256 65280
84.05871 -88.17738 73.36322 65280
84.32521 -86.066826 18.46323 65280
113.9964 -94.54739 10.782109 65280
81.98634 -79.784454 67.06826 65280
78.388626 -92.426094 60.01482 65280
82.506065 -81.885956 26.846512 65280
78.97673 -82.70459 74.608 65280
84.46453 -91.32914 58.272743 65280
87.060715 -89.930275 8.170714 65280
79.571594 -96.58993 11.396012 65280
78.74703 -80.280205 70.41888 65280
117.938126 -90.5239 -0.491296 65280
126.05089 -90.830864 7.478946 65280
79.173096 -81.85229 54.34121 65280
86.251854 -92.12945 9.957638 65280
78.21722 -84.25367 40.537186 65280
124.93201 -89.70689 1.09208 65280
77.83607 -85.59482 3.101662 65280
78.262764 -87.25383 13.45923 65280
84.70267 -89.73952 27.36693 65280
78.364944 -90.52532 22.606462 65280
115.98813 -94.94143 8.72955 65280
78.96947 -96.678925 8.849329 65280
84.27804 -83.79644 67.19153 65280
81.93644 -90.49233 33.89766 65280
115.70071 -93.37307 19.110518 65280
83.97612 -88.99494 54.448055 65280
85.90178 -93.766075 7.896377 65280
78.18534 -82.39758 19.43295 65280
120.46088 -94.1034 6.028647 65280
83.71376 -82.12963 6.892077 65280
84.40296 -85.221405 11.498013 65280
120.225204 -88.25953 6.609289 65280
83.743576 -85.875656 33.27593 65280
83.83653 -84.542625 27.09737 65280
126.29423 -86.49686 7.69299 65280
125.665016 -86.47938 9.734064 65280
83.74426 -87.78296 34.80902 65280
86.81464 -90.49316 7.737836 65280
84.06622 -88.2703 30.181963 65280
77.86289 -86.06858 28.6882 65280
85.91441 -87.4314 25.085003 65280
78.31326 -83.838524 10.301842 65280
126.06188 -88.148224 3.802988 65280
78.1389 -93.55467 14.219788 65280
122.366684 -84.88087 13.682333 65280
81.23536 -85.61693 84.44167 65280
78.13913 -86.93815 19.58424 65280
84.745415 -83.7469 3.85649 65280
84.99819 -82.05907 7.274958 65280
78.27027 -88.82208 30.620178 65280
77.7205 -89.249275 18.321665 65280
79.33976 -99.38393 -1.052793 65280
77.81262 -82.66496 7.695438 65280
78.04909 -84.23394 27.024311 65280
83.570076 -86.32972 74.442635 65280
77.649216 -86.00173 40.406055 65280
77.65475 -84.566216 52.89749 65280
85.194405 -90.10265 58.10451 65280
77.67055 -89.72329 14.722895 65280
122.39399 -86.42301 18.450836 65280
77.98154 -87.47244 30.048609 65280
126.968994 -87.13674 7.945847 65280
77.98712 -90.10102 53.0078 65280
88.190735 -93.32481 1.186982 65280
82.5065 -96.72198 8.864782 65280
86.54281 -84.8799 7.802334 65280
85.23372 -85.07445 2.308776 65280
77.08537 -83.95069 21.508749 65280
19.4436 -27.5678 2.91339 65280
19.2836 -27.5249 4.03651 65280
19.2424 -26.0014 2.77976 65280
19.2417 -27.2033 1.67102 65280
19.1936 -28.4893 2.69808 65280
19.1475 -25.8831 1.7827 65280
19.0083 -28.0001 1.38622 65280
18.9949 -28.4442 3.93727 65280
18.8971 55.7572 3.87095 65280
18.8727 55.7916 2.77318 65280
18.7647 56.6889 2.82243 65280
18.7393 56.7494 3.89679 65280
18.7055 -27.3033 0.632751 65280
19.088175 -26.002417 3.8719888 65280
18.6516 -26.7497 5.15623 65280
18.80629 -26.002806 0.753088 65280
18.6291 -24.1506 1.75612 65280
18.67381 -24.087038 2.9538174 65280
18.5582 -29.1321 2.47252 65280
18.4572 56.6465 5.66 65280
18.4182 -28.59 1.26332 65280
18.4116 55.327 2.37962 65280
18.388 -29.0596 3.62052 65280
18.385 -24.2594 0.949499 65280
18.3351 -26.362 0.174819 65280
18.2892 55.2656 3.57054 65280
18.2853 -27.5395 5.11624 65280
18.2809 -23.7242 4.68171 65280
18.463453 56.724167 2.00387 65280
18.38263 57.62896 5.4036546 65280
18.1875 -27.8492 0.598857 65280
18.1336 58.0983 2.87047 65280
18.0378 -24.5498 0.307712 65280
18.197317 58.421715 3.8664582 65280
18.0012 57.1727 6.21327 65280
17.9859 -24.2297 6.19815 65280
17.8564 56.1473 5.56807 65280
17.8449 57.8393 2.0202 65280
17.8198 -26.789 0.151898 65280
17.7694 -25.2228 6.30618 65280
17.7501 55.1083 2.10969 65280
17.744 -28.0718 4.73414 65280
17.813076 56.35455 1.2574381 65280
17.7247 -29.1362 2.13164 65280
17.6969 58.9008 6.67584 65280
17.6769 -24.9531 -0.090478 65280
17.6482 57.5343 1.39329 65280
17.6289 -29.0638 3.09432 65280
17.5811 -31.4946 2.5981 65280
17.5579 -31.2503 1.09775 65280
17.5482 55.0766 3.19161 65280
17.5462 56.7357 6.24644 65280
17.5421 -29.5471 2.14773 65280
17.5287 -18.062 51.8021 65280
17.5141 -19.1907 48.096 65280
17.5002 35.9918 53.2325 65280
17.4948 -20.9483 51.7289 65280
17.495985 -28.873165 1.1447738 65280
17.4804 -25.8836 6.25668 65280
17.475 33.4134 52.854 65280
17.4692 -16.5655 48.2611 65280
17.4302 -29.3949 3.11041 65280
17.4216 -23.2687 7.88919 65280
17.445688 -22.537329 3.133299 65280
17.3997 -22.7091 1.82952 65280
17.614122 -22.590889 6.665983 65280
17.401377 34.625023 56.58279 65280
17.3248 58.1532 6.85165 65280
17.3236 34.46 50.2047 65280
17.3236 -30.9955 3.73732 65280
17.38861 -28.276297 0.7154026 65280
17.3173 -22.1256 47.9511 65280
17.2975 -22.2221 4.67245 65280
17.2897 36.9283 50.7116 65280
17.647667 59.627922 6.175947 65280
17.2544 59.5913 8.09669 65280
17.2485 -15.6811 52.0201 65280
17.2409 -30.3632 0.22505 65280
17.239004 31.31313 57.1441 65280
17.2285 -23.4306 51.9116 65280
17.1849 -22.8585 1.02241 65280
17.1807 -25.4159 -0.111937 65280
17.1676 -14.0774 48.7246 65280
17.176655 60.110054 3.7940652 65280
17.1373 -14.5277 36.8347 65280
17.1312 57.4043 0.995586 65280
17.129 31.824 49.2127 65280
17.1285 59.8886 2.89876 65280
17.1173 -17.0998 38.9117 65280
17.121733 -20.482786 13.236759 65280
17.1022 39.2926 53.7009 65280
17.1022 38.2314 56.0532 65280
17.101 32.8833 59.77 65280
17.10626 -20.911366 55.494793 65280
17.0961 -16.7969 55.1293 65280
134.14708 -112.78649 138.04846 16711680
134.01294 -117.86967 143.86603 16711680
133.8135 -117.3385 151.358 16711680
133.7779 -112.8026 152.159 16711680
133.687 -120.6293 150.681 16711680
133.8205 -122.51753 143.95346 16711680
133.6978 -109.98072 138.06279 16711680
133.47949 -122.9668 149.853 16711680
133.61298 -109.847 129.32202 16711680
133.4718 -158.49612 133.18835 16711680
133.3132 -108.14565 124.89064 16711680
133.60638 -113.07448 144.46687 16711680
133.39204 -104.87609 125.32729 16711680
133.22168 -151.79507 134.2758 16711680
133.38281 -103.84241 131.46872 16711680
134.02666 -120.42393 139.52493 16711680
133.24763 -108.07721 145.45651 16711680
133.01111 -108.0531 152.559 16711680
133.29294 -152.07933 129.82376 16711680
132.5412 -104.0163 139.395 16711680
133.0662 -160.79758 128.39627 16711680
132.69617 -155.3093 125.2061 16711680
132.864 -157.00342 138.69177 16711680
132.4444 -121.0492 157.891 16711680
132.50528 -148.85176 126.837364 16711680
133.03163 -113.036995 127.496796 16711680
132.38345 -146.63667 135.56024 16711680
133.06769 -102.272156 126.328156 16711680
132.1535 -125.8709 156.773 16711680
132.1505 -115.1815 158.714 16711680
132.83041 -128.96167 149.70016 16711680
131.9935 -103.0685 146.028 16711680
132.41411 -100.370544 132.40974 16711680
133.1014 -126.70343 144.66704 16711680
132.56686 -163.60078 138.13765 16711680
132.77588 -111.124214 123.08189 16711680
132.2116 -169.77228 131.77501 16711680
132.01376 -148.94672 140.38556 16711680
132.39304 -110.370834 118.757256 16711680
132.5343 -103.364876 120.90745 16711680
132.41989 -108.98066 117.572426 16711680
132.02908 -115.878815 123.99625 16711680
131.4802 -100.4228 139.783 16711680
132.01028 -143.60672 131.84633 16711680
131.65434 -128.60559 155.79971 16711680
131.78279 -98.548065 123.95974 16711680
131.74532 -166.1005 123.212425 16711680
131.53557 -149.29083 122.96258 16711680
133.08766 -124.57209 140.37471 16711680
131.42485 -103.81623 114.16465 16711680
131.94879 -119.943054 128.80664 16711680
131.23323 -138.72537 137.82874 16711680
131.12372 -131.86563 144.10045 16711680
131.2298 -173.92123 137.0778 16711680
130.9653 -139.83737 142.11842 16711680
131.3645 -158.1011 120.607155 16711680
131.12851 -99.59298 116.84949 16711680
131.01184 -102.020805 108.17367 16711680
131.09999 -133.25461 148.9566 16711680
131.16006 -163.43254 143.77043 16711680
130.8406 -135.2661 143.201 16711680
130.7468 -108.3693 159.136 16711680
131.46657 -172.65437 126.728355 16711680
130.7302 -102.3699 152.77 16711680
130.95871 -111.614494 112.25174 16711680
130.78046 -105.4149 105.332504 16711680
130.97244 -154.69524 145.08565 16711680
130.60115 -107.81623 108.96099 16711680
130.41687 -147.97897 146.202 16711680
130.83904 -116.6885 117.119736 16711680
130.3688 -127.3752 162.109 16711680
130.60555 -173.2627 122.27381 16711680
130.59335 -98.5798 111.4608 16711680
130.54417 -134.70245 135.99258 16711680
130.3064 -121.1765 163.024 16711680
130.2703 -136.9893 148.299 16711680
130.61998 -113.82753 114.479324 16711680
130.65723 -132.9206 154.62613 16711680
129.99037 -142.06638 147.44072 16711680
130.72775 -129.79485 139.1782 16711680
130.23897 -131.49188 137.0627 16711680
129.94402 -97.83775 144.68275 16711680
129.9245 -131.8553 160.892 16711680
131.28789 -142.04547 128.02298 16711680
130.21631 -125.635 129.94672 16711680
129.78825 -122.462204 122.051674 16711680
130.89505 -96.54227 131.75764 16711680
129.93195 -174.9473 142.69759 16711680
129.76073 -152.22403 117.60541 16711680
129.60162 -112.57763 108.62058 16711680
130.00531 -116.76539 113.53622 16711680
129.63742 -95.74216 116.82361 16711680
129.4013 -113.3717 163.652 16711680
129.85127 -170.53355 118.35224 16711680
129.52832 -108.923454 103.689896 16711680
130.63849 -178.37831 130.85747 16711680
129.6782 -135.44461 153.90639 16711680
130.34036 -99.48374 104.69994 16711680
129.54683 -103.31269 101.265854 16711680
129.1031 -106.89668 100.50275 16711680
129.16171 -101.59279 90.23954 16711680
129.0526 -133.8818 159.813 16711680
129.90126 -95.40183 121.789925 16711680
129.7829 -146.03392 120.158676 16711680
129.17253 -225.95206 127.307686 16711680
129.07727 -181.87299 141.15674 16711680
128.93694 -100.91919 98.38903 16711680
129.31003 -132.00415 131.29044 16711680
129.98988 -180.93744 136.10614 16711680
128.94987 -220.98503 115.97577 16711680
129.23135 -226.86172 132.60658 16711680
128.72195 -227.37033 123.72608 16711680
128.81946 -120.87804 114.94147 16711680
128.97284 -223.26538 130.53783 16711680
128.5566 -102.0202 158.606 16711680
128.52461 -140.37729 153.02797 16711680
128.49815 -106.65174 92.19681 16711680
129.0176 -161.87357 115.48929 16711680
128.69167 -161.84402 149.42357 16711680
128.57323 -221.64723 119.38961 16711680
128.82245 -231.0664 123.86223 16711680
